# .PCD v0.7 - Point Cloud Data file format
VERSION 0.7
FIELDS x y z
SIZE 4 4 4
TYPE F F F
COUNT 1 1 1
WIDTH 1641
HEIGHT 1
VIEWPOINT 0 0 0 1 0 0 0
POINTS 1641
DATA ascii
0.394266 -0.362765 2.3654
0.147916 -0.0982192 0.844423
0.142353 -0.106917 0.845511
0.416021 -0.359196 2.36938
0.142195 -0.10032 0.85056
0.416305 -0.376526 2.35028
0.133951 -0.094969 0.85377
0.1339 -0.101593 0.847741
0.12812 -0.110066 0.848167
0.138866 -0.0927077 0.844441
0.373543 -0.367241 2.36623
0.134148 -0.10867 0.842848
0.148252 -0.104832 0.840171
0.470345 -0.356984 2.31691
0.454512 -0.364651 2.33639
0.170471 -0.0994077 0.839992
0.171481 -0.106574 0.838206
0.162048 -0.0939477 0.841891
0.153271 -0.089284 0.842696
0.163887 -0.107694 0.837636
0.428994 -0.366461 2.315
0.156089 -0.102753 0.841543
0.154928 -0.0962214 0.842938
0.168573 -0.0922423 0.839013
0.176495 -0.0911187 0.840523
0.162607 -0.101398 0.838573
0.1991 -0.0996409 0.832465
0.197836 -0.0925406 0.833342
0.497439 -0.356961 2.34296
0.183495 -0.0897579 0.839199
0.184139 -0.0958217 0.836474
0.184666 -0.103037 0.833366
0.191504 -0.100967 0.831838
0.584487 -0.389105 2.49294
0.176158 -0.0977799 0.834692
0.188753 -0.0874445 0.83294
0.503017 -0.344167 2.28569
0.504403 -0.378466 2.35284
0.177325 -0.104427 0.833479
0.196676 -0.0865256 0.834428
0.506509 -0.363444 2.2826
0.190725 -0.0947516 0.834078
0.203996 -0.103876 0.821485
0.710396 -0.428445 2.67536
0.697709 -0.41796 2.73008
0.217514 -0.100517 0.818746
0.663292 -0.418907 2.69371
0.212035 -0.095749 0.827634
0.211372 -0.0886151 0.830066
0.203738 -0.0968738 0.825033
0.203479 -0.0908199 0.828561
0.212563 -0.102654 0.824874
0.199959 -0.108234 0.830303
0.707288 -0.406099 2.68183
0.712334 -0.408455 2.69859
0.217033 -0.0873268 0.825588
0.217504 -0.0934308 0.82278
0.758502 -0.416967 2.67789
0.231463 -0.0970128 0.817274
0.231901 -0.0907905 0.822205
0.728522 -0.399859 2.67391
0.780953 -0.390503 2.68968
0.222813 -0.084869 0.821672
0.237592 -0.0884387 0.81829
0.224517 -0.0919428 0.822031
0.753014 -0.39411 2.67661
0.244989 -0.0861801 0.818577
0.24094 -0.103135 0.818792
0.230467 -0.0835434 0.822548
0.735189 -0.424261 2.67908
0.22514 -0.0989057 0.819649
0.782219 -0.41379 2.6781
0.239597 -0.0958139 0.819349
0.844326 -0.393404 2.65293
0.258821 -0.0898819 0.813264
0.265118 -0.0952739 0.807617
0.251788 -0.084851 0.817415
0.802975 -0.405574 2.66943
0.244791 -0.0932223 0.814398
0.822098 -0.399324 2.65653
0.849685 -0.417385 2.65384
0.816293 -0.417301 2.62545
0.259738 -0.0975712 0.811761
0.245262 -0.1006 0.811802
0.253574 -0.0988634 0.8143
0.252484 -0.0917788 0.815398
0.866423 -0.388801 2.64911
0.257265 -0.0830232 0.813273
0.264237 -0.0880751 0.809138
0.91169 -0.39906 2.63159
0.279528 -0.0921242 0.807476
0.284151 -0.0832664 0.805248
0.914465 -0.377896 2.65197
0.278374 -0.085126 0.808358
0.862406 -0.408283 2.62441
0.896208 -0.407339 2.6525
0.936636 -0.394929 2.63562
0.887832 -0.381276 2.64359
0.927332 -0.410396 2.59934
0.283709 -0.0903552 0.801015
0.269718 -0.086209 0.805293
0.270416 -0.0934857 0.803398
1.00158 -0.39713 2.61094
0.982384 -0.369959 2.57719
0.305308 -0.0850251 0.800914
0.951298 -0.385572 2.6139
0.29334 -0.0950155 0.802827
0.291831 -0.0883616 0.802931
0.957878 -0.407581 2.61773
0.963671 -0.397351 2.57544
0.30496 -0.0920075 0.797102
0.292901 -0.0820066 0.808352
0.980551 -0.382271 2.62853
0.299057 -0.0931694 0.799758
0.298192 -0.0869926 0.801138
1.03491 -0.362413 2.59224
1.06371 -0.401771 2.58245
0.325661 -0.0936447 0.792231
1.04053 -0.37389 2.54191
0.325084 -0.0873933 0.794075
0.319648 -0.082209 0.800542
1.01015 -0.387873 2.57681
1.03012 -0.401656 2.55865
0.324873 -0.0807343 0.796642
0.312808 -0.0905419 0.798311
1.03252 -0.373944 2.64057
1.04166 -0.386793 2.59615
0.310577 -0.0837378 0.797015
0.316931 -0.0887781 0.792322
1.09425 -0.386974 2.54885
1.1353 -0.364632 2.59748
0.337248 -0.0834763 0.789822
1.0813 -0.374732 2.58132
0.330692 -0.0914887 0.788184
0.338894 -0.0907349 0.789902
1.12755 -0.384458 2.57064
0.34352 -0.0819114 0.788056
1.08844 -0.395448 2.58591
0.330803 -0.0857179 0.791238
0.343494 -0.0885029 0.785185
1.13098 -0.406962 2.56727
0.350511 -0.0802535 0.787576
1.09548 -0.364781 2.56214
1.14179 -0.355705 2.56271
0.369143 -0.0822838 0.779306
1.16707 -0.34959 2.56702
0.370315 -0.0884461 0.778603
1.17668 -0.375132 2.57631
0.355671 -0.0851303 0.781146
1.17628 -0.396256 2.56526
1.14186 -0.377582 2.55249
0.357181 -0.079093 0.786478
1.16069 -0.360402 2.49845
1.18491 -0.388795 2.53646
0.362185 -0.0896728 0.777183
1.19155 -0.3567 2.51449
0.363786 -0.0842117 0.782547
1.13937 -0.397043 2.5371
0.351336 -0.0873614 0.786198
1.25179 -0.372916 2.53222
0.379982 -0.0790851 0.773116
0.382697 -0.085006 0.774934
1.21705 -0.37413 2.50998
1.2426 -0.402776 2.54892
1.22537 -0.388104 2.57037
1.26608 -0.386236 2.50655
1.24019 -0.348245 2.52
1.22092 -0.354605 2.52702
1.2323 -0.389093 2.48625
1.25228 -0.361529 2.49051
0.388749 -0.0839057 0.772844
1.26556 -0.345847 2.52431
0.375077 -0.0867332 0.774422
0.375869 -0.0805504 0.778356
0.389241 -0.077512 0.776223
1.30577 -0.376057 2.49519
0.402769 -0.0880462 0.769065
0.408152 -0.0787778 0.768575
1.30548 -0.352773 2.50379
0.400952 -0.080505 0.768887
1.32722 -0.391648 2.48339
1.28463 -0.359885 2.50776
1.31771 -0.369352 2.47573
0.410344 -0.085577 0.769359
0.396283 -0.0824925 0.773099
1.27556 -0.377514 2.48215
1.3582 -0.378921 2.45769
0.41364 -0.0839925 0.763107
0.41411 -0.0773831 0.766324
0.427458 -0.0814183 0.761398
0.421231 -0.0823084 0.76331
1.35307 -0.387285 2.48819
-1.10329 -0.231434 2.43853
-1.13107 -0.23898 2.45349
-1.09852 -0.210988 2.41501
-1.03885 -0.199134 2.22336
-1.3689 -0.234559 3.19003
-1.35962 -0.29127 3.34696
-1.48035 -0.291288 3.56562
-1.33273 -0.255787 3.33512
-1.41408 -0.243289 3.45502
-1.38054 -0.330085 3.4197
-1.43245 -0.244264 3.42552
-1.32103 -0.314753 3.33878
-1.34374 -0.291683 3.38235
-1.27817 -0.271603 3.36518
-1.54004 -0.378046 4.24078
-1.26155 -0.301304 3.33525
-1.26606 -0.334469 3.36691
-1.19863 -0.229824 3.19798
-1.32194 -0.318139 3.4225
-1.22242 -0.324 3.32446
-1.24261 -0.264362 3.34655
-0.302383 -0.0766384 0.985645
-0.311829 -0.0887968 0.998662
-0.307146 -0.068111 0.99947
-0.301493 -0.0857317 0.990794
-0.306618 -0.0951769 0.983308
-0.29898 -0.0664724 1.00234
-0.178638 -0.0261055 0.602141
-0.279018 -0.0986847 0.983898
-0.171855 -0.0355992 0.609695
-0.296088 -0.0756765 0.997483
-0.281128 -0.0904727 0.98481
-0.287934 -0.0727373 1.00082
-0.273462 -0.0885511 0.990366
-0.284647 -0.0819246 0.993452
-0.290057 -0.0917958 0.986558
-0.298547 -0.0935818 0.985892
-0.292816 -0.0836088 0.990764
-0.173133 -0.0248447 0.60046
-0.166698 -0.0286851 0.600793
-0.172452 -0.030065 0.604655
-0.269933 -0.0965522 0.981165
-0.261374 -0.0943413 0.981458
-0.149748 -0.0305786 0.60234
-0.165814 -0.0402562 0.614617
-0.159637 -0.0449796 0.619246
-0.155503 -0.0321668 0.60713
-0.165671 -0.046407 0.624782
-0.160619 -0.0330067 0.604759
-0.159529 -0.0515851 0.631027
-0.166521 -0.0347153 0.609992
-0.154625 -0.0378971 0.610626
-0.155793 -0.0260412 0.597489
-0.159218 -0.0577914 0.641166
-0.154312 -0.0436551 0.620859
-0.161504 -0.0275229 0.601798
-0.150636 -0.0249676 0.598875
-0.149156 -0.0365249 0.609653
-0.164981 -0.0527935 0.629954
-0.160293 -0.0390073 0.613548
-0.141588 -0.0605029 0.650596
-0.136153 -0.0521678 0.633566
-0.132046 -0.0385555 0.61445
-0.136813 -0.0459064 0.623631
-0.128134 -0.0256535 0.595589
-0.132728 -0.0326557 0.604714
-0.147436 -0.0550697 0.634755
-0.143012 -0.0409666 0.615971
-0.154032 -0.0502232 0.631847
-0.138942 -0.0281908 0.599789
-0.148751 -0.0424036 0.619809
-0.148145 -0.048706 0.627757
-0.142174 -0.0470294 0.621406
-0.141566 -0.0528128 0.630872
-0.137349 -0.0396359 0.612306
-0.133631 -0.0272321 0.599627
-0.153484 -0.0567516 0.640153
-0.147228 -0.0615914 0.649187
-0.138391 -0.0341135 0.609765
-0.143547 -0.0349559 0.606543
-0.144472 -0.0295894 0.602907
-0.118288 -0.054786 0.639958
-0.114581 -0.0406075 0.616582
-0.134808 -0.0655445 0.655134
-0.123097 -0.0628084 0.651345
-0.12981 -0.0576314 0.644368
-0.125668 -0.0433072 0.620769
-0.116615 -0.0291132 0.602686
-0.124801 -0.0494996 0.629716
-0.135507 -0.0588549 0.644436
-0.130305 -0.0507658 0.628319
-0.121068 -0.0359888 0.611363
-0.123868 -0.0558134 0.637766
-0.126383 -0.0372071 0.609086
-0.111183 -0.0275945 0.597712
-0.120054 -0.0419637 0.617003
-0.127424 -0.0315062 0.605757
-0.122892 -0.0246926 0.596361
-0.119097 -0.0480497 0.625296
-0.115516 -0.0346702 0.605834
-0.12189 -0.0300577 0.600986
-0.131106 -0.0445735 0.619684
-0.129048 -0.064315 0.655792
-0.11047 -0.0670911 0.662411
-0.106921 -0.0519771 0.636561
-0.103638 -0.0380499 0.613502
-0.102473 -0.0440028 0.622815
-0.11359 -0.0468441 0.626634
-0.110182 -0.0334906 0.607871
-0.105874 -0.026501 0.596484
-0.0994105 -0.0309425 0.603662
-0.100039 -0.0570759 0.644004
-0.111501 -0.0597579 0.647391
-0.104568 -0.0651045 0.656655
-0.101272 -0.0502524 0.630438
-0.0982117 -0.0365385 0.609599
-0.100582 -0.0250816 0.592326
-0.0969828 -0.042721 0.617534
-0.105775 -0.0585584 0.647911
-0.117359 -0.0615091 0.652266
-0.0941015 -0.0296088 0.59926
-0.112532 -0.0530808 0.635285
-0.109075 -0.0392477 0.613501
-0.107968 -0.0453302 0.620759
-0.104754 -0.0321361 0.602448
-0.0987517 -0.0641956 0.658282
-0.0914822 -0.0414026 0.61922
-0.0887552 -0.0283582 0.600753
-0.0956681 -0.0491486 0.632729
-0.0928357 -0.0352636 0.607178
-0.0874613 -0.0341408 0.606661
-0.0816099 -0.0590945 0.645855
-0.0791851 -0.0448219 0.622429
-0.0831203 -0.0527743 0.636405
-0.0872075 -0.0610196 0.652259
-0.0806355 -0.0387476 0.614879
-0.0845248 -0.0465213 0.6297
-0.0781988 -0.0256836 0.597773
-0.0943566 -0.0555189 0.641346
-0.0767522 -0.0315882 0.605148
-0.0730883 -0.0243439 0.593464
-0.0930089 -0.0620576 0.650238
-0.0901593 -0.0475313 0.626524
-0.0821782 -0.0327654 0.603311
-0.0887463 -0.0539864 0.637264
-0.0861193 -0.040039 0.613654
-0.0835791 -0.027 0.595205
-0.0645424 -0.0552634 0.64382
-0.0612232 -0.046782 0.625419
-0.0594124 -0.0334804 0.605874
-0.066511 -0.0288055 0.596236
-0.0719905 -0.0498167 0.632831
-0.0701964 -0.0360108 0.605326
-0.0757918 -0.0580388 0.648311
-0.0685126 -0.062947 0.653934
-0.0799736 -0.0660107 0.658266
-0.0735161 -0.0439609 0.625902
-0.0649394 -0.0347221 0.603337
-0.0663128 -0.0486212 0.634023
-0.0628316 -0.0407152 0.618846
-0.0611891 -0.0274899 0.596645
-0.0577464 -0.0393038 0.612974
-0.0560477 -0.0264521 0.594558
-0.0715971 -0.0301841 0.600594
-0.0740642 -0.0651424 0.660191
-0.0703297 -0.0562105 0.642134
-0.0682668 -0.0419387 0.619931
-0.0774648 -0.0514194 0.636727
-0.0753136 -0.0375711 0.611609
-0.0625546 -0.0622147 0.656751
-0.0503402 -0.0441509 0.622716
-0.0488818 -0.0309646 0.603203
-0.0425929 -0.0494334 0.633944
-0.0550497 -0.0671147 0.662773
-0.0533932 -0.0524783 0.640084
-0.0521102 -0.0381503 0.615476
-0.0494574 -0.0654467 0.659076
-0.048246 -0.050486 0.633583
-0.0471531 -0.0366167 0.609654
-0.0573164 -0.0598893 0.647872
-0.055625 -0.0456659 0.626111
-0.0415096 -0.0355862 0.612084
-0.0437448 -0.0640817 0.657545
-0.0513447 -0.059005 0.650894
-0.0396799 -0.0415199 0.618711
-0.038554 -0.0284158 0.599481
-0.050864 -0.0251924 0.593402
-0.0592193 -0.0532515 0.637756
-0.0544038 -0.032202 0.601016
-0.0461753 -0.0568973 0.643678
-0.0447777 -0.0430012 0.623131
-0.0440684 -0.0296403 0.597432
-0.0294701 -0.0529816 0.639862
-0.029091 -0.0388331 0.615321
-0.0283407 -0.0257353 0.595909
-0.0266327 -0.0314587 0.600482
-0.0326464 -0.061005 0.652102
-0.0317549 -0.046675 0.630161
-0.0381025 -0.0625949 0.655554
-0.0367851 -0.0340107 0.605313
-0.0344278 -0.040146 0.616476
-0.0337615 -0.0270223 0.594737
-0.0352218 -0.0540241 0.639102
-0.0216489 -0.057993 0.647424
-0.0271108 -0.0595738 0.649905
-0.0210973 -0.0439292 0.626024
-0.0243651 -0.0664636 0.663006
-0.0268471 -0.0448985 0.624342
-0.0401538 -0.056265 0.647061
-0.0374505 -0.0476511 0.629099
-0.0245606 -0.0510742 0.633439
-0.0239262 -0.0245264 0.589155
-0.031069 -0.0329225 0.608344
-0.0238527 -0.0375214 0.613543
-0.0210478 -0.0303751 0.602442
-0.00830717 -0.0617187 0.651837
-0.00791934 -0.0473967 0.632011
-0.0106957 -0.0550832 0.643635
-0.0105945 -0.041101 0.621848
-0.00866398 -0.0335298 0.606005
-0.00545455 -0.0537976 0.640492
-0.00380637 -0.0322211 0.602775
-0.0186512 -0.0501381 0.635723
-0.0188821 -0.0360297 0.609993
-0.00613798 -0.0392447 0.614921
-0.00234137 -0.0604056 0.653106
-0.00632593 -0.0263864 0.594141
-0.0132225 -0.0634138 0.658374
-0.0138416 -0.0482832 0.629678
-0.0164076 -0.0288706 0.597407
-0.0134966 -0.0348813 0.60982
-0.0185862 -0.0361901 0.612219
-0.00334351 -0.0454972 0.62537
-0.0108694 -0.027801 0.599016
-0.016293 -0.0564882 0.64447
-0.0162598 -0.0421848 0.620728
-0.0193462 -0.0645629 0.656031
0.0119401 -0.0644438 0.661747
0.00257738 -0.0587572 0.647625
0.0129437 -0.0557145 0.641335
0.00225942 -0.0443228 0.62574
0.0102623 -0.0492741 0.632981
0.000866047 -0.0676126 0.666027
0.0098316 -0.0357056 0.612804
-0.000259926 -0.052037 0.637417
0.0126451 -0.0417079 0.621861
0.00387694 -0.0365303 0.609721
0.0151812 -0.0474806 0.629221
0.0117161 -0.0282602 0.600061
-0.000427884 -0.0383391 0.61653
0.0140053 -0.0338438 0.606123
0.00549689 -0.0653676 0.658115
0.00173305 -0.0309463 0.603937
0.00530649 -0.0509354 0.636922
0.0082785 -0.0572782 0.647412
0.00686814 -0.0426133 0.620305
0.0062864 -0.0296277 0.599431
0.0165095 -0.0624402 0.654496
0.0169475 -0.0399914 0.615514
-0.000797259 -0.0253231 0.595708
0.0162645 -0.0269348 0.596126
0.0310835 -0.0667612 0.66329
0.0359151 -0.0647075 0.65827
0.033949 -0.0499613 0.633266
0.0325961 -0.0362632 0.612278
0.0234882 -0.0527306 0.637139
0.0267037 -0.0593259 0.647366
0.0294152 -0.051511 0.638556
0.033436 -0.0288294 0.597009
0.0272 -0.0373686 0.612392
0.0228748 -0.0390541 0.617911
0.0258649 -0.0452027 0.62693
0.0255263 -0.0244751 0.590031
0.0188162 -0.0543641 0.642383
0.0227895 -0.0614056 0.657093
0.0208294 -0.0465049 0.629619
0.0195918 -0.0329306 0.607234
0.0211631 -0.0257412 0.594257
0.0330242 -0.0582527 0.650256
0.0236956 -0.0313274 0.601042
0.0374385 -0.0564146 0.643974
0.0307693 -0.0436052 0.623851
0.0360217 -0.0425645 0.622614
0.0294801 -0.0303967 0.603202
0.0438042 -0.0555193 0.646977
0.0437765 -0.0470875 0.627242
0.0427519 -0.0338435 0.609366
0.0534748 -0.0524375 0.63957
0.05677 -0.0584349 0.64819
0.0478669 -0.053532 0.63979
0.0394237 -0.0485074 0.632682
0.0416444 -0.0636288 0.657818
0.0538158 -0.0441368 0.622959
0.0464273 -0.0320697 0.602305
0.0507684 -0.0383346 0.615349
0.0407685 -0.0408729 0.619261
0.0517524 -0.0602297 0.651256
0.0522985 -0.0310862 0.604462
0.0497365 -0.0457044 0.628975
0.0464665 -0.0615447 0.653379
0.045397 -0.0393377 0.615658
0.0432018 -0.0263175 0.593687
0.0366773 -0.0346209 0.606339
0.0485652 -0.0253247 0.594132
0.0394005 -0.0279268 0.599941
0.0668964 -0.0556657 0.643029
0.0631625 -0.0414636 0.61663
0.0615521 -0.0284749 0.599121
0.0769661 -0.0610123 0.654754
0.073894 -0.0467233 0.631563
0.0637935 -0.0495982 0.635711
0.0731451 -0.0387087 0.613361
0.0719209 -0.0541629 0.640565
0.0712166 -0.0260271 0.595873
0.0576003 -0.0505974 0.633416
0.0555649 -0.0370289 0.6128
0.0623685 -0.0574776 0.647647
0.0690813 -0.0401289 0.61834
0.0675433 -0.047717 0.628686
0.05989 -0.0354161 0.608632
0.059776 -0.0429706 0.624722
0.0651744 -0.026887 0.593097
0.0560869 -0.0294189 0.598482
0.065266 -0.0344769 0.608603
0.069575 -0.0327265 0.604778
0.0881379 -0.0584786 0.653339
0.0858366 -0.049583 0.630127
0.08263 -0.0440782 0.623235
0.0833976 -0.0361544 0.611374
0.0767711 -0.0526438 0.637629
0.0740839 -0.0313745 0.601874
0.0785073 -0.0376672 0.613144
0.0810203 -0.0593517 0.648528
0.0778163 -0.0449392 0.625712
0.0753171 -0.0244108 0.59192
0.0797501 -0.0303094 0.603027
0.0883763 -0.0422789 0.624036
0.156595 -0.0575279 0.909236
0.173896 -0.0624169 0.85227
0.168002 -0.0789312 0.84722
0.174485 -0.0692163 0.8491
0.158513 -0.0399248 0.84247
0.178824 -0.0378784 0.859193
0.171766 -0.0472314 0.855755
0.16662 -0.0636877 0.853106
0.167745 -0.0714607 0.851532
0.166635 -0.0568936 0.858361
0.179937 -0.0453338 0.857603
0.172613 -0.0546514 0.853321
0.172399 -0.0399299 0.862912
0.187734 -0.0588915 0.848616
0.186341 -0.04393 0.854086
0.200279 -0.0404495 0.850753
0.182223 -0.0750546 0.844954
0.181798 -0.0806411 0.838929
0.186343 -0.0368009 0.858966
0.189202 -0.0656585 0.84821
0.194838 -0.0499415 0.85211
0.202751 -0.0623829 0.844118
0.201495 -0.0554335 0.845082
0.195294 -0.0780064 0.835097
0.199866 -0.0476236 0.845026
0.180809 -0.053459 0.8553
0.179923 -0.0600158 0.847702
0.188136 -0.0732023 0.840382
0.186171 -0.0511035 0.848767
0.180643 -0.0676701 0.845017
0.195429 -0.071182 0.839985
0.194385 -0.0564496 0.846158
0.18938 -0.0790343 0.83939
0.19352 -0.0417242 0.852983
0.195018 -0.0641609 0.843366
0.210005 -0.0676254 0.839173
0.222368 -0.0493924 0.840936
0.222629 -0.0427919 0.845825
0.208056 -0.0529841 0.842568
0.208304 -0.046192 0.847656
0.215119 -0.0519296 0.841479
0.216335 -0.0587302 0.840469
0.208712 -0.0606851 0.839983
0.221577 -0.0568718 0.834721
0.214086 -0.037213 0.847348
0.20311 -0.0766287 0.836252
0.223319 -0.0640814 0.835122
0.208235 -0.0384226 0.851918
0.215883 -0.0659777 0.835035
0.223101 -0.0724788 0.830368
0.22257 -0.0348757 0.849907
0.202108 -0.0695148 0.837875
0.214736 -0.0443967 0.844761
0.230294 -0.0756348 0.826067
0.236852 -0.0605858 0.831914
0.229111 -0.0485532 0.839095
0.235918 -0.0459782 0.837501
0.229671 -0.0698109 0.828426
0.230195 -0.0552258 0.8378
0.243436 -0.051804 0.833802
0.236554 -0.0394569 0.843103
0.24993 -0.0361141 0.839235
0.227786 -0.0408393 0.83981
0.242504 -0.0588334 0.827691
0.23765 -0.07418 0.8261
0.237586 -0.068151 0.829798
0.236077 -0.0535405 0.83393
0.243726 -0.0657081 0.826833
0.229012 -0.0622655 0.830773
0.243172 -0.0451366 0.837036
0.249172 -0.0425576 0.833591
0.242468 -0.0373612 0.839239
0.263 -0.0392295 0.831243
0.264054 -0.0536589 0.826396
0.26304 -0.0468155 0.827696
0.263069 -0.0813436 0.809998
0.256564 -0.0482975 0.829805
0.25591 -0.0416434 0.831983
0.250471 -0.064458 0.825368
0.263676 -0.0610263 0.821941
0.250378 -0.0571614 0.828898
0.256404 -0.0623247 0.822093
0.255936 -0.055505 0.824657
0.2705 -0.0447382 0.827856
0.249516 -0.0501525 0.830615
0.255297 -0.0340277 0.834295
0.264563 -0.0683204 0.820369
0.269332 -0.037821 0.828804
0.26945 -0.0520684 0.821973
0.284244 -0.0415516 0.825559
0.283281 -0.0775448 0.806614
0.289857 -0.0468545 0.818445
0.270005 -0.07199 0.812769
0.270185 -0.0664554 0.81659
0.276948 -0.0502963 0.822295
0.27125 -0.0803122 0.812025
0.276332 -0.0358953 0.827908
0.276632 -0.0576267 0.818152
0.277944 -0.0646298 0.817581
0.283526 -0.0629276 0.813861
0.270632 -0.0588774 0.821093
0.283172 -0.04871 0.819849
0.283669 -0.0555054 0.817536
0.289463 -0.0400787 0.820947
0.276162 -0.0702907 0.81035
0.277369 -0.0785865 0.809536
0.282646 -0.0343531 0.825544
0.283474 -0.0697709 0.810417
0.275975 -0.0433318 0.823631
0.291284 -0.0610534 0.81481
0.28963 -0.0543324 0.81464
0.30381 -0.0647671 0.807318
0.296336 -0.0593151 0.810144
0.309797 -0.0561609 0.807852
0.291429 -0.0683201 0.811815
0.297272 -0.0385167 0.821848
0.302964 -0.0704239 0.80251
0.310564 -0.0349327 0.818825
0.309416 -0.0632603 0.803978
0.309614 -0.0488704 0.810624
0.316157 -0.0334185 0.81528
0.295557 -0.0452209 0.815027
0.296608 -0.0521694 0.813941
0.296511 -0.079348 0.800936
0.30446 -0.0783416 0.802341
0.304383 -0.0577545 0.811642
0.309267 -0.0422702 0.813069
0.304383 -0.0438396 0.818039
0.302355 -0.0509139 0.810731
0.302952 -0.0366681 0.81836
0.317726 -0.0752369 0.799885
0.320987 -0.0730684 0.792319
0.331495 -0.078279 0.795488
0.322454 -0.0388947 0.810126
0.315428 -0.0673164 0.798525
0.31745 -0.0613304 0.80545
0.330648 -0.0442575 0.808699
0.329485 -0.0575467 0.80058
0.328633 -0.0716713 0.793094
0.309669 -0.0760942 0.798348
0.329808 -0.0650268 0.798212
0.336059 -0.0355473 0.80802
0.322897 -0.0661963 0.798916
0.322655 -0.0527791 0.804447
0.316166 -0.0476729 0.80909
0.316458 -0.040165 0.812761
0.330197 -0.036709 0.810849
0.317357 -0.0544267 0.808336
0.330178 -0.0510738 0.804835
0.322458 -0.0596406 0.801065
0.322675 -0.0455331 0.807516
0.34394 -0.0754219 0.791637
0.335539 -0.0494115 0.801181
0.342312 -0.0410485 0.803054
0.33628 -0.0697698 0.79383
0.347577 -0.0656539 0.788037
0.336383 -0.0637435 0.796878
0.348988 -0.0604931 0.793286
0.348792 -0.0462355 0.798627
0.343407 -0.0679069 0.793558
0.335544 -0.0765527 0.789603
0.355351 -0.0376588 0.800037
0.3491 -0.0389706 0.802028
0.343757 -0.0477318 0.80279
0.342872 -0.0618079 0.795428
0.342144 -0.0335006 0.805652
0.342641 -0.0542479 0.797897
0.335496 -0.0564114 0.798181
0.336424 -0.0424599 0.805748
0.348629 -0.0530927 0.795502
0.34979 -0.0738927 0.789086
0.356586 -0.0444734 0.7994
0.360781 -0.0627921 0.785672
0.361164 -0.057049 0.789025
0.375659 -0.0399739 0.794075
0.369177 -0.0480022 0.792914
0.362497 -0.043147 0.796843
0.354958 -0.0716146 0.785432
0.355566 -0.0581616 0.792028
0.356386 -0.0512677 0.79625
0.361624 -0.0704119 0.784349
0.374596 -0.0468461 0.789608
0.368627 -0.0690548 0.783823
0.368356 -0.054877 0.788809
0.362722 -0.0771895 0.78349
0.361249 -0.0501527 0.791924
0.375573 -0.0533898 0.788562
0.355713 -0.0644575 0.789521
0.362757 -0.0356382 0.80007
0.369195 -0.0345013 0.798402
0.369515 -0.0753399 0.782642
0.376219 -0.0325338 0.79772
0.367395 -0.0615335 0.784488
0.368778 -0.0411676 0.794961
0.394069 -0.0485433 0.782546
0.386946 -0.0429321 0.785623
0.388248 -0.0367599 0.790343
0.387567 -0.0705305 0.776171
0.381003 -0.0516955 0.78535
0.380615 -0.0721046 0.776798
0.373276 -0.0599894 0.78208
0.394941 -0.0555354 0.781335
0.386691 -0.056946 0.779982
0.374165 -0.0728219 0.778253
0.39384 -0.0413461 0.784772
0.381438 -0.0588175 0.783405
0.39503 -0.0350725 0.789257
0.387682 -0.0499868 0.784194
0.381057 -0.0444083 0.78809
0.382086 -0.0381535 0.79243
0.387037 -0.063465 0.777942
0.400147 -0.0673988 0.772734
0.407169 -0.0452055 0.779724
0.394991 -0.0759281 0.773645
0.406449 -0.0725897 0.768482
0.407127 -0.0585985 0.774605
0.393488 -0.0613605 0.776481
0.40159 -0.0744962 0.772392
0.412571 -0.0503163 0.774036
0.413846 -0.0437752 0.778467
0.400341 -0.0468332 0.780711
0.414118 -0.037409 0.781382
0.400382 -0.0402996 0.783329
0.401293 -0.0335629 0.787323
0.406232 -0.0663096 0.770652
0.407597 -0.038207 0.782917
0.407826 -0.0524424 0.77819
0.394511 -0.0692121 0.775475
0.409001 -0.0317155 0.78763
0.400059 -0.0536134 0.777716
0.413554 -0.0575423 0.773004
0.399659 -0.0603237 0.774543
0.420613 -0.0421031 0.777319
0.42196 -0.0761596 0.766857
0.412287 -0.0641821 0.768588
0.42016 -0.0560129 0.771663
0.425869 -0.047247 0.771449
0.426431 -0.0677172 0.764877
0.420648 -0.0490754 0.774884
0.420416 -0.0348944 0.779506
0.420279 -0.0689773 0.766888
0.426053 -0.0341517 0.776624
0.426188 -0.0405051 0.774375
0.420406 -0.0629808 0.769528
0.434898 -0.0458808 0.77355
0.433994 -0.0391217 0.774681
0.415161 -0.071189 0.770391
0.428189 -0.0741892 0.764979
0.433637 -0.0318239 0.7766
-1.05651 0.0261112 1.90913
-1.0493 0.0228637 1.8616
-1.09498 0.0198129 2.06777
-1.05528 -0.00404133 2.11964
-1.04821 -0.0205157 2.15532
-1.0084 -0.000785343 2.05559
-1.07353 0.00934071 2.10943
-1.01781 -0.0354313 2.13845
-1.02087 -0.052461 2.15581
-0.993572 -0.0311296 2.12538
-0.983237 -0.0157392 2.04842
-0.973231 0.023059 2.04809
-0.320984 0.0162139 0.937939
-0.320607 0.00816506 0.944178
-0.33998 0.0129522 0.948308
-0.331457 0.00662865 0.954961
-0.324561 -2.21059e-005 0.969262
-0.310839 0.0177124 0.929328
-0.328944 0.0142921 0.936981
-0.315494 0.0012334 0.966532
-0.299015 0.0135269 0.959502
-0.187147 -0.0162466 0.608161
-0.185148 -0.0216769 0.602395
-0.302676 0.0116495 0.937567
-0.326896 -0.00905813 0.987672
-0.312821 0.0100122 0.94625
-0.176702 0.00840378 0.615026
-0.175077 0.00327953 0.611586
-0.179138 -0.00331422 0.610567
-0.16779 -0.0234864 0.600008
-0.171319 0.0100629 0.615397
-0.171785 -0.00753452 0.603975
-0.182969 -0.00987935 0.607998
-0.188174 0.00630334 0.619549
-0.179865 -0.0202388 0.602557
-0.18134 -0.0154743 0.604703
-0.168025 -0.00104932 0.607407
-0.16667 -0.00622118 0.605905
-0.180844 0.0022645 0.614494
-0.182528 0.0075668 0.61811
-0.174434 -0.0194004 0.601486
-0.184342 -0.00432462 0.609346
-0.18617 0.000126988 0.613859
-0.168978 -0.0179793 0.600131
-0.170304 -0.0131152 0.601389
-0.173552 -0.0021715 0.608845
-0.164998 -0.0115659 0.601381
-0.175992 -0.0140467 0.604528
-0.177625 -0.00857634 0.608079
-0.169689 0.00468532 0.611643
-0.160932 -0.00515106 0.601996
-0.165562 0.0108806 0.612285
-0.157095 0.00142346 0.605189
-0.148663 -0.00821138 0.596319
-0.150031 -0.00285844 0.598748
-0.14605 -0.0188092 0.592725
-0.15691 -0.0213739 0.596845
-0.16262 0.000249352 0.606968
-0.164039 0.0050939 0.609157
-0.152707 -0.0146133 0.595691
-0.155708 -0.00390825 0.602986
-0.159463 -0.0105289 0.599043
-0.158687 0.00704356 0.609484
-0.16353 -0.0169113 0.598623
-0.147312 -0.0130907 0.594067
-0.152996 0.00773646 0.605905
-0.15164 0.00254386 0.603908
-0.154245 -0.00915985 0.599853
-0.158072 -0.0155005 0.59683
-0.151202 -0.0201095 0.591738
-0.162163 -0.0225529 0.59672
-0.131379 -0.00994109 0.590746
-0.134048 0.000793339 0.597105
-0.134279 -0.0215753 0.590495
-0.127298 -0.0036939 0.590598
-0.142115 0.0100822 0.603512
-0.135345 0.00591103 0.599263
-0.140574 -0.0171145 0.589319
-0.129133 -0.0205507 0.592106
-0.128661 0.00210321 0.595053
-0.130012 0.00712419 0.598738
-0.132747 -0.00450741 0.594661
-0.145023 -0.0236971 0.594573
-0.141984 -0.0122437 0.592918
-0.144859 -0.0015544 0.600404
-0.130002 -0.0147191 0.586473
-0.13972 -0.0225797 0.59383
-0.146172 0.00376574 0.602217
-0.136763 0.0116439 0.603394
-0.140792 0.00479269 0.601398
-0.143502 -0.00679916 0.597885
-0.137938 -0.00596134 0.593498
-0.135371 -0.0159531 0.589485
-0.136631 -0.0109308 0.591157
-0.139343 -0.000361298 0.597262
-0.147699 0.00931707 0.606707
-0.110358 -0.0052669 0.586057
-0.112776 0.0054103 0.592054
-0.113987 0.0105468 0.594315
-0.123693 -0.0191569 0.587165
-0.109136 -0.00999479 0.581383
-0.120823 -0.00761527 0.588142
-0.123374 0.00317847 0.594649
-0.119516 -0.0123333 0.583543
-0.117487 -0.0231899 0.592179
-0.113189 -0.0168911 0.58271
-0.116761 -0.00142106 0.588134
-0.124641 0.00836246 0.59716
-0.112241 -0.0222599 0.592177
-0.108035 -0.0158663 0.583615
-0.115563 -0.00627626 0.586411
-0.118013 0.0044061 0.591696
-0.12213 -0.00221319 0.592416
-0.111572 0.000115967 0.589629
-0.126091 -0.00853193 0.589499
-0.124867 -0.0136175 0.587847
-0.114367 -0.0112811 0.584457
-0.118499 -0.0180896 0.587396
-0.119295 0.00938694 0.59548
-0.0988264 -0.00782019 0.579426
-0.09996 -0.00301094 0.583473
-0.0947875 -0.00143556 0.5822
-0.0959227 0.00317524 0.583262
-0.0918083 0.0100703 0.588177
-0.106298 0.000962765 0.585302
-0.102258 0.00768639 0.589046
-0.101727 -0.0195512 0.588492
-0.101104 0.0024301 0.587251
-0.102841 -0.0147328 0.579719
-0.0965324 -0.018155 0.584079
-0.0970355 0.00890598 0.587489
-0.0953173 -0.0240307 0.593593
-0.0976932 -0.0136229 0.580582
-0.0925933 -0.0123499 0.576532
-0.106949 -0.0206581 0.588759
-0.108703 0.0116783 0.593477
-0.103989 -0.00912131 0.582375
-0.091366 -0.0171929 0.583107
-0.107488 0.00658842 0.589284
-0.105147 -0.00402316 0.584694
-0.0907198 0.00465386 0.584557
-0.0936796 -0.00687602 0.579904
-0.0848809 -0.0215861 0.589761
-0.0824586 -0.0098218 0.573151
-0.0844928 0.000886869 0.580465
-0.0746025 -0.0191543 0.585314
-0.0723791 -0.00724611 0.570986
-0.0885694 -0.005746 0.57798
-0.0855971 0.00554312 0.581858
-0.0896324 -0.000702622 0.581637
-0.0753806 0.00776756 0.578985
-0.0811387 -0.0148201 0.579253
-0.0742902 0.00309674 0.577988
-0.0784122 -0.00341478 0.575054
-0.0901349 -0.0226638 0.588613
-0.0874437 -0.0111992 0.577934
-0.0794081 0.0014887 0.578618
-0.0732747 -0.00238063 0.575682
-0.0834392 -0.00466202 0.577889
-0.0798273 -0.0203389 0.584534
-0.0804146 0.00696474 0.582169
-0.0773159 -0.00838089 0.574386
-0.0761315 -0.0135151 0.575943
-0.0862449 -0.0157833 0.580705
-0.0866649 0.0111542 0.584656
-0.0643507 -0.0166296 0.58293
-0.0641812 0.00532161 0.575374
-0.0582743 0.00102652 0.570959
-0.0609529 -0.0104712 0.573494
-0.0543947 -0.0142616 0.577881
-0.0651959 0.010042 0.577228
-0.054157 0.00752434 0.572851
-0.0710417 -0.0125185 0.575456
-0.0595254 -0.0153941 0.577916
-0.0600496 0.011366 0.577433
-0.0591712 0.00620056 0.573968
-0.0576511 -0.02089 0.588329
-0.057326 -0.00331946 0.568648
-0.0680012 -0.0230575 0.590116
-0.0683523 -0.00120335 0.572205
-0.0661222 -0.0112377 0.572204
-0.0673177 -0.00559168 0.570634
-0.0692868 0.00372333 0.575609
-0.0623721 -0.00465526 0.568814
-0.0628685 -0.0220509 0.588447
-0.0631898 -6.79175e-005 0.573413
-0.0702071 0.00922213 0.579473
-0.0561414 -0.00920377 0.569814
-0.0696471 -0.0175686 0.58064
-0.0366585 -0.00494801 0.563036
-0.0375423 0.000761318 0.564873
-0.0457218 -0.0239855 0.592021
-0.044459 -0.0118874 0.574466
-0.0475348 -0.0183846 0.584609
-0.0441795 0.00970329 0.570776
-0.0463349 -0.00697923 0.566467
-0.0526919 -0.0196389 0.585049
-0.0512925 -0.00828573 0.567341
-0.0524296 -0.00237895 0.566834
-0.0531767 0.00215647 0.57125
-0.038525 0.00560072 0.565948
-0.0474771 -0.00126439 0.565932
-0.0484064 0.00327535 0.567889
-0.0427874 -0.0172045 0.580118
-0.0408725 -0.0226895 0.587977
-0.0399422 -0.0106199 0.568924
-0.0392518 0.0106093 0.569456
-0.0425908 -0.000425335 0.564585
-0.0432619 0.00455031 0.568859
-0.0415104 -0.00619916 0.56447
-0.0374133 -0.0160735 0.582183
-0.0496905 -0.0129966 0.573002
-0.0491675 0.00836537 0.571753
-0.0331831 -0.0149256 0.574132
-0.0234688 -0.0124827 0.570557
-0.0191208 0.00988809 0.561103
-0.0356237 -0.0214927 0.588235
-0.0328241 0.0017372 0.562386
-0.0317498 -0.00390631 0.562282
-0.033409 0.00668277 0.566706
-0.0346842 -0.00939763 0.570704
-0.0207887 -0.0177923 0.582145
-0.0231719 0.00393272 0.559941
-0.0306874 -0.0202691 0.585823
-0.0304376 -0.00822249 0.564056
-0.0259021 -0.0191311 0.58257
-0.0236557 0.00877439 0.564409
-0.0222629 -0.0014253 0.558705
-0.0252311 -0.00717662 0.565562
-0.0287853 0.00754718 0.563486
-0.0277923 0.00292301 0.562668
-0.0209702 -0.00592154 0.560174
-0.0277868 -0.0137577 0.576515
-0.0270783 -0.00247729 0.559813
-0.0160431 -0.0166428 0.579251
-0.0156696 -0.00488355 0.562373
-0.00457994 -0.00793123 0.562545
-0.0137807 -0.0102156 0.567673
-0.0129245 0.00107832 0.555001
-0.0184647 -0.0231785 0.590838
-0.00346115 0.00327004 0.552804
-0.00858171 -0.020802 0.586994
-0.00629819 -0.0142293 0.575981
-0.00855664 0.00731682 0.55814
-0.00619338 -0.00288207 0.559393
-0.00162753 -0.0129872 0.573432
-0.013947 -0.0219952 0.585917
-0.018255 0.00512057 0.559564
-0.00248915 -0.00203468 0.552284
-0.0135751 0.00600241 0.557734
-0.0140668 0.0108985 0.561593
-0.00838453 -0.00900504 0.569908
-0.00826158 0.00259056 0.553383
-0.00409997 -0.0195331 0.582599
-0.00415761 0.00834998 0.554944
-0.0112685 -0.0154759 0.576885
-0.0115336 -0.0037443 0.556997
-0.018011 -0.0112911 0.573306
-0.0177038 0.000266696 0.555959
0.0107044 -0.0159907 0.578999
0.00135633 -0.0183352 0.584272
0.0029144 -0.0118949 0.570432
0.00348909 -0.0239013 0.590038
0.00475754 -0.00560427 0.559138
0.00276465 -0.00100957 0.554211
0.00137784 0.0048086 0.552415
0.0129057 -0.0214316 0.584649
0.0124123 -0.00961431 0.567338
0.00585572 0.0052956 0.550286
0.000883105 0.00928902 0.555615
0.00874523 -0.0227409 0.590184
0.0120188 0.000974113 0.551409
0.00796522 -0.0107134 0.570402
0.00679284 -0.00011963 0.54966
0.00532332 0.0104436 0.553053
0.0101211 -0.0043942 0.561212
0.0106483 0.0067364 0.549836
0.00534485 -0.0171167 0.577746
0.0148792 -0.0148916 0.574228
0.0141371 -0.00327146 0.556545
0.0151525 0.00733419 0.548119
0.000822774 -0.00662068 0.564857
0.0235554 -0.000984116 0.55456
0.0324052 -0.0164713 0.579347
0.0330224 -0.01035 0.5649
0.0309976 -0.023255 0.591147
0.0298232 0.00544026 0.544155
0.0185822 -0.0203862 0.587114
0.0168989 -0.00858431 0.564734
0.0194854 -0.00209113 0.558495
0.0159057 0.00170686 0.546693
0.0317238 0.00111928 0.547692
0.0247738 -0.0129626 0.572957
0.0243354 0.00947741 0.545803
0.0278669 -0.0114502 0.564216
0.030295 -0.00505693 0.557849
0.0261029 -0.00619281 0.561175
0.0195713 0.00872718 0.546099
0.0281607 -0.0180922 0.583382
0.024819 0.00425848 0.543344
0.0275799 0.000107207 0.550733
0.0287586 0.0107725 0.544053
0.02267 -0.0190142 0.581837
0.0222222 -0.0073642 0.566221
0.0206659 0.00306508 0.546328
0.040581 -0.0208737 0.587467
0.0422912 -0.00794877 0.562014
0.0411903 -0.0141581 0.573378
0.0384314 -0.00899819 0.566571
0.0395554 -0.00276963 0.555398
0.0369046 0.00227621 0.549023
0.0522297 -0.0236905 0.587979
0.0502031 -0.0118547 0.569082
0.0492946 -0.0183863 0.580918
0.0481841 -0.000456134 0.550926
0.039025 0.00770875 0.542466
0.0401821 0.00317268 0.542903
0.0473811 -0.0066716 0.562457
0.035234 -0.0219534 0.586823
0.0338666 0.00646759 0.541027
0.0453694 0.00458566 0.544315
0.0371883 -0.0153185 0.577895
0.0443074 -0.0194846 0.581531
0.042756 0.00897815 0.538415
0.0353448 -0.00398832 0.558312
0.0466364 -0.0130302 0.57484
0.0441249 -0.00163977 0.554068
0.0508141 -0.0056108 0.556758
0.0488525 0.00964089 0.543303
0.063754 -0.0148467 0.577543
0.0673504 -0.0136021 0.572367
0.0578853 -0.0228475 0.589681
0.054675 0.000634497 0.55675
0.0624385 0.0017073 0.549699
0.0670491 -0.00192962 0.561648
0.0552182 -0.010781 0.569013
0.06755 -0.0202299 0.586993
0.0586327 -0.0161386 0.577498
0.0534954 -0.0170965 0.577386
0.061509 -0.0213135 0.58392
0.0602339 -0.00946229 0.568945
0.0599419 -0.00340253 0.554251
0.0575525 -0.00456607 0.563246
0.0713867 -0.0189104 0.582384
0.170827 -0.0249097 0.8684
0.174812 0.0149343 0.883202
0.17648 -0.00791416 0.872457
0.175771 0.0077567 0.880827
0.171325 -0.0175606 0.875354
0.169823 0.00594767 0.886887
0.170288 -0.00192606 0.882871
0.17819 -0.0232876 0.867424
0.177079 -0.015512 0.869115
0.181938 0.0169772 0.881044
0.178749 -0.030865 0.864036
0.171249 -0.0324469 0.864477
0.176238 6.93239e-005 0.876958
0.158646 -0.0337674 0.8482
0.168172 0.0137547 0.887039
0.183506 0.00129909 0.875487
0.182628 0.00925782 0.877946
0.170945 -0.00975511 0.879535
0.196921 0.00477887 0.869411
0.205551 -0.00889256 0.862682
0.184772 -0.0214187 0.864115
0.192987 -0.0344327 0.856166
0.193258 -0.0274934 0.861762
0.196651 0.0124663 0.873512
0.190752 0.0111896 0.879018
0.198957 -0.0182872 0.860946
0.200047 -0.0332805 0.854705
0.198961 -0.0105961 0.86571
0.207175 -0.0166364 0.862626
0.204727 -0.00122965 0.865017
0.204511 0.0142066 0.873886
0.191904 -0.0123424 0.867499
0.190753 -0.00450629 0.868999
0.19918 -0.00289644 0.871157
0.185385 -0.0290866 0.861004
0.192673 -0.0199415 0.864885
0.184508 -0.0138509 0.868336
0.184656 -0.00637587 0.873886
0.20593 0.00680598 0.873147
0.199279 -0.0255661 0.857163
0.191344 0.00345913 0.875745
0.221283 -0.0206446 0.855119
0.221343 -0.0278731 0.850956
0.226261 0.0116057 0.865539
0.220791 -0.00551488 0.862575
0.227215 -0.0113358 0.855073
0.213593 0.000299279 0.868369
0.212938 -0.00708151 0.861986
0.227487 -0.0334916 0.843165
0.219585 0.00217046 0.863764
0.22681 -0.00344747 0.858283
0.226982 0.00383777 0.863082
0.207285 -0.0240748 0.858338
0.206245 -0.0310545 0.850897
0.220463 -0.0129516 0.857287
0.21157 0.00818471 0.867344
0.213162 -0.0146035 0.858092
0.228388 -0.0260612 0.849659
0.227476 -0.0186713 0.851504
0.214255 -0.029544 0.852184
0.2139 -0.0222196 0.855646
0.219664 0.01025 0.868437
0.212227 0.0160578 0.87382
0.256436 0.0108703 0.860165
0.241783 -0.0300821 0.841499
0.241317 0.014855 0.864785
0.249283 0.00162037 0.857339
0.241065 -0.0078787 0.851756
0.249821 -0.0282527 0.842838
0.254937 0.00319808 0.852608
0.241741 -0.0226072 0.845371
0.24056 -0.0152925 0.846452
0.234603 -0.024129 0.846302
0.241693 -0.000362985 0.857421
0.234105 -0.00209465 0.857483
0.236525 -0.0315374 0.847074
0.24966 -0.013883 0.850297
0.241457 0.00666666 0.860982
0.248592 -0.0209271 0.843765
0.248387 -0.00627915 0.851158
0.233037 0.00551853 0.858952
0.235098 -0.00970457 0.855837
0.248697 0.00920554 0.85994
0.23542 -0.0165923 0.852475
0.249014 0.0165293 0.864828
0.234626 0.0134697 0.86732
0.276441 -0.00729915 0.842411
0.263762 -0.0325859 0.836667
0.268113 -0.0234018 0.833251
0.268748 -0.008418 0.841998
0.26237 -0.0174711 0.840874
0.255299 -0.0265342 0.838067
0.268023 -0.00137663 0.844054
0.269868 0.0140671 0.855802
0.274996 0.00785694 0.846446
0.26237 0.00492027 0.852239
0.276176 0.00031755 0.845449
0.269197 -0.0160785 0.839355
0.268255 -0.0303978 0.829963
0.274675 0.0155828 0.849392
0.260762 0.0124045 0.852296
0.254974 -0.011621 0.844922
0.25419 -0.00454115 0.846928
0.262883 -0.0248866 0.83834
0.268168 0.00639282 0.848105
0.262474 -0.0101567 0.844874
0.26273 -0.00288555 0.849272
0.255856 -0.0193844 0.843194
0.295471 -0.0239132 0.824725
0.294644 -0.016879 0.826333
0.290482 -0.0257153 0.82986
0.289275 -0.010801 0.834121
0.290275 -0.0180809 0.832826
0.289526 -0.0326775 0.824441
0.281971 -0.00524846 0.838011
0.295727 -0.00172405 0.835338
0.282249 -0.0201027 0.831602
0.296267 0.0128393 0.843358
0.290468 -0.00350486 0.84015
0.295687 0.00508606 0.838692
0.27677 -0.029263 0.832397
0.275357 -0.0143297 0.836378
0.289539 0.0113475 0.845151
0.296244 -0.00933634 0.833051
0.281935 0.00185286 0.841492
0.282665 -0.0127543 0.83601
0.282425 -0.0273134 0.828512
0.289433 0.00347354 0.841424
0.277638 -0.0213455 0.837866
0.28161 0.00953289 0.844345
0.31628 -0.0259053 0.818646
0.309554 0.0014918 0.832913
0.31661 0.010453 0.835237
0.31702 -0.0193791 0.823262
0.308645 0.0084788 0.834361
0.316596 -0.0113579 0.825576
0.315734 -0.00444199 0.82706
0.309624 -0.0279649 0.82013
0.316751 0.00306064 0.832289
0.302552 -0.00784813 0.830624
0.302506 -0.0291343 0.820686
0.323052 0.0119938 0.833067
0.308538 -0.0133557 0.824362
0.303406 -0.000130735 0.835705
0.309005 -0.00599548 0.82854
0.308866 -0.0205881 0.821807
0.301478 0.0145171 0.838421
0.303567 -0.0221145 0.826117
0.303795 -0.0147742 0.829868
0.309289 0.0161884 0.838975
0.296599 -0.0311708 0.823757
0.303394 0.00683732 0.839056
0.337664 -0.0283773 0.813969
0.342705 0.00189379 0.821406
0.328745 -0.022402 0.814124
0.32948 -0.0304192 0.812502
0.33625 0.0151268 0.829443
0.335678 -0.0140315 0.816234
0.343467 0.00923559 0.825817
0.33589 -0.00685583 0.819639
0.335979 0.00802161 0.825855
0.322373 0.00474738 0.828555
0.329347 -0.00104021 0.824444
0.330439 -0.00803184 0.823447
0.324318 -0.0316194 0.816777
0.336314 -0.0213715 0.814436
0.322326 -0.00997236 0.822201
0.329545 0.0135482 0.831038
0.336753 0.000400472 0.824293
0.323017 -0.0174863 0.820441
0.329876 -0.0158675 0.819329
0.323236 -0.00281576 0.827109
0.330155 0.0060997 0.829104
0.322522 -0.0247922 0.816388
0.356909 -0.0015618 0.817006
0.342839 -0.0193915 0.812764
0.355962 -0.0162193 0.809606
0.349055 -0.0320445 0.804804
0.362995 0.0142091 0.820196
0.348798 -0.00373812 0.815904
0.349803 -0.0249095 0.809019
0.343564 -0.00490021 0.820002
0.356355 0.00500203 0.818927
0.349854 0.0110236 0.823695
0.349423 -0.0106182 0.814117
0.362809 -0.000411726 0.81418
0.363297 0.0067709 0.817883
0.357156 -0.0092835 0.814595
0.349478 0.00366227 0.820064
0.35571 -0.0238339 0.80632
0.349595 -0.0182064 0.811537
0.357192 0.0126142 0.823323
0.343927 -0.0125879 0.817722
0.355671 -0.030256 0.803418
0.342218 -0.0269075 0.808701
0.362635 -0.00773313 0.811051
0.369721 -0.0129406 0.807562
0.37491 -0.00465908 0.806396
0.361513 -0.0288664 0.800691
0.37599 0.0101959 0.813716
0.363875 -0.0220538 0.807594
0.369661 0.0015457 0.813009
0.382285 -0.00983499 0.803464
0.369941 0.00803408 0.816326
0.362467 -0.0150468 0.807944
0.37587 -0.0187191 0.802561
0.375633 0.00291519 0.810355
0.368255 -0.0205333 0.802288
0.368933 -0.0271135 0.800697
0.374585 -0.0255114 0.797681
0.38394 0.00462231 0.811637
0.370599 -0.0061138 0.811863
0.383106 0.0113418 0.812978
0.369921 0.0156786 0.819091
0.375238 -0.0119009 0.80422
0.382751 -0.00285676 0.806945
0.386621 -0.022339 0.79296
0.395911 0.00773154 0.806375
0.381715 -0.0312018 0.794485
0.388232 -0.0292126 0.792952
0.388316 -0.00125175 0.803679
0.389776 0.0132679 0.811435
0.39507 0.0148524 0.807648
0.395354 -0.0279881 0.79238
0.40169 0.00188253 0.800859
0.395236 -0.00689682 0.800033
0.382154 -0.0238639 0.79788
0.388412 -0.00866724 0.801183
0.401781 0.00910327 0.803601
0.390254 0.00605514 0.809542
0.389477 -0.0152635 0.800266
0.381798 -0.0172026 0.799972
0.402431 -0.0120392 0.79685
0.40152 -0.00538261 0.798
0.395527 -0.0206269 0.795261
0.39618 0.000164319 0.804191
0.3951 -0.0142408 0.797195
0.413556 -0.0303709 0.783041
0.413317 -0.0162677 0.787703
0.407795 -0.0109972 0.7934
0.408371 -0.0175546 0.791741
0.421308 -0.00775594 0.790814
0.399576 -0.0190659 0.789751
0.412608 -0.0229149 0.784101
0.408655 -0.0249801 0.789639
0.424067 0.0141635 0.802518
0.415307 0.00492117 0.798346
0.409145 0.0109712 0.803184
0.410053 0.00324765 0.802069
0.415512 -0.00899801 0.793593
0.421449 -0.00020665 0.79351
0.408479 -0.00328931 0.797009
0.423163 0.00650625 0.798645
0.415248 -0.0022322 0.795723
0.400966 -0.026151 0.789382
0.414978 0.0119119 0.800377
0.421898 -0.0143273 0.789203
0.442071 0.00424603 0.789828
0.434619 -0.0186815 0.782918
0.440878 0.011071 0.790515
0.428255 -0.0271314 0.782353
0.44023 -0.0101098 0.782323
0.426776 -0.0131271 0.785083
0.421534 -0.021975 0.786167
0.427961 0.00115627 0.791782
0.435051 -0.0256774 0.781106
0.427694 0.00790501 0.793864
0.434496 0.0029248 0.790049
0.434866 -0.0045192 0.788168
0.427963 -0.0198633 0.784384
0.436914 0.00951723 0.796104
0.442503 -0.00282963 0.788036
0.421906 -0.028665 0.784234
0.428742 -0.00585502 0.790481
0.42712 0.0152175 0.795462
0.434787 -0.0113855 0.785605
-1.05333 0.145535 1.88294
-1.04119 0.0967478 1.88168
-1.05294 0.130282 1.88979
-1.06045 0.0718535 1.86127
-1.06314 0.142044 1.86929
-1.05045 0.0392524 1.85649
-1.05635 0.108024 1.87098
-1.0653 0.093554 1.89606
-1.05621 0.0770729 1.88576
-1.06717 0.043587 1.92269
-1.05588 0.114683 1.90334
-1.07345 0.121202 1.97336
-1.06479 0.0561139 1.8771
-1.0342 0.100131 1.90152
-1.05556 0.136533 1.92911
-1.06434 0.125752 1.87911
-1.04874 0.141061 1.95036
-0.99942 0.147687 1.91889
-1.03043 0.135839 1.99367
-0.985115 0.0717466 2.00666
-1.05411 0.0675591 2.08011
-0.989266 0.136118 1.94218
-1.03329 0.158246 2.02948
-0.986174 0.0905522 2.00009
-1.04568 0.0490481 2.07073
-1.02628 0.0717783 2.05907
-1.0199 0.0889366 2.03585
-0.380892 0.0637834 0.824948
-0.374924 0.0658549 0.828671
-0.369328 0.0607392 0.83883
-0.35889 0.0615251 0.828829
-0.363383 0.0557413 0.84855
-0.376979 0.0593528 0.839835
-0.352443 0.0635155 0.831424
-0.371433 0.0544706 0.850586
-0.367007 0.0491619 0.865699
-0.341618 0.0463644 0.861967
-0.346484 0.0583704 0.841399
-0.330145 0.0611379 0.835401
-0.349439 0.0517607 0.857218
-0.352678 0.044929 0.874235
-0.354394 0.038153 0.88617
-0.33931 0.0530672 0.847817
-0.356316 0.0503061 0.855205
-0.354305 0.0569326 0.842988
-0.3378 0.0597169 0.836676
-0.342469 0.0643768 0.822187
-0.347919 0.0322978 0.89698
-0.324982 0.0493312 0.855916
-0.313718 0.0639709 0.828282
-0.350423 0.0251127 0.912518
-0.336102 0.0408356 0.875659
-0.30825 0.0522747 0.848658
-0.33465 0.0479824 0.864015
-0.343688 0.0268245 0.917134
-0.321489 0.062459 0.830292
-0.323041 0.056019 0.84227
-0.332175 0.0281433 0.903449
-0.31951 0.0440767 0.870495
-0.344581 0.019328 0.927341
-0.345559 0.0395157 0.882195
-0.329877 0.0354716 0.887749
-0.332953 0.0548057 0.85164
-0.328237 0.0425857 0.874813
-0.306694 0.0587759 0.835672
-0.316361 0.0576814 0.844923
-0.339299 0.0340581 0.894013
-0.335312 0.0205049 0.922689
-0.321879 0.0373989 0.886777
-0.318025 0.0510982 0.857964
-0.305449 0.0652427 0.824142
-0.308411 0.0257016 0.91078
-0.295664 0.0416203 0.873515
-0.297352 0.0345541 0.888806
-0.291802 0.0552103 0.8416
-0.28624 0.0501255 0.857464
-0.326341 0.0223119 0.91897
-0.312834 0.0386704 0.881379
-0.314735 0.0313828 0.896509
-0.32566 0.030134 0.909001
-0.302709 0.0471541 0.863723
-0.307849 0.0332151 0.900635
-0.294399 0.0486982 0.860373
-0.284183 0.0633382 0.833041
-0.285127 0.0567807 0.844752
-0.317616 0.0237819 0.91602
-0.31116 0.0456881 0.867432
-0.300015 0.0604229 0.838307
-0.306043 0.0407118 0.885321
-0.289903 0.0614828 0.82619
-0.274329 0.0641662 0.820956
-0.301187 0.0538181 0.850168
-0.29093 0.0290353 0.903443
-0.278994 0.0447567 0.866827
-0.261911 0.0474731 0.856802
-0.280408 0.0377345 0.882017
-0.269699 0.0531359 0.849838
-0.273919 0.0396323 0.888355
-0.259805 0.0608136 0.828558
-0.26874 0.0594933 0.836857
-0.261634 0.0543675 0.846605
-0.275677 0.0578724 0.834973
-0.2529 0.0622122 0.830536
-0.292662 0.0210849 0.920136
-0.302861 0.0198285 0.930025
-0.282357 0.0302524 0.900145
-0.272129 0.0467983 0.870533
-0.299869 0.0271958 0.908141
-0.287856 0.0434046 0.872754
-0.290631 0.0364473 0.893769
-0.277857 0.051514 0.853255
-0.26791 0.0658366 0.824774
-0.184008 0.0129292 0.620121
-0.244102 0.0634691 0.821924
-0.179972 0.019747 0.621814
-0.245728 0.0497885 0.850115
-0.172756 0.0152384 0.617369
-0.237583 0.0585863 0.835918
-0.178481 0.0144387 0.619635
-0.23759 0.0651856 0.826188
-0.253641 0.0560248 0.843497
-0.182175 0.0259213 0.62946
-0.174503 0.0212222 0.621939
-0.245731 0.0573533 0.840573
-0.238881 0.051788 0.853936
-0.186243 0.0189244 0.627628
-0.175948 0.0264307 0.623828
-0.229941 0.0601037 0.834027
-0.160176 0.012411 0.612509
-0.161636 0.0176471 0.615126
-0.164779 0.0287079 0.622281
-0.163301 0.0235655 0.619717
-0.206457 0.0640207 0.822723
-0.154555 0.0132152 0.610115
-0.16875 0.0221545 0.619506
-0.222796 0.0548104 0.84656
-0.149097 0.0147107 0.609344
-0.221909 0.0613822 0.829284
-0.150541 0.0200493 0.612407
-0.214087 0.0628226 0.825506
-0.157478 0.0243189 0.615935
-0.159353 0.029918 0.623027
-0.156094 0.0189607 0.613955
-0.213922 0.0558548 0.836096
-0.230378 0.0530433 0.847442
-0.152119 0.0257681 0.616968
-0.153593 0.0308895 0.620074
-0.167309 0.0168628 0.617402
-0.17062 0.0280547 0.625401
-0.207092 0.0580664 0.840318
-0.143532 0.0153963 0.606827
-0.131289 0.0123972 0.600784
-0.135398 0.0291729 0.611043
-0.141472 0.0481893 0.650414
-0.146387 0.0268021 0.6133
-0.140989 0.028153 0.613764
-0.142487 0.0329953 0.618114
-0.148148 0.0319981 0.62059
-0.138177 0.0170433 0.607141
-0.139551 0.0222865 0.610004
-0.132628 0.0178784 0.603861
-0.133994 0.0234509 0.60723
-0.137044 0.0348393 0.618615
-0.198835 0.0655919 0.819657
-0.144963 0.0213724 0.610236
-0.19834 0.0587254 0.828941
-0.109893 0.0168512 0.595269
-0.113597 0.0335919 0.605048
-0.128572 0.0245024 0.606305
-0.124443 0.0313109 0.607845
-0.120395 0.0379482 0.612492
-0.117727 0.0268638 0.603104
-0.116507 0.0216145 0.601643
-0.129989 0.0304791 0.611147
-0.12728 0.0193375 0.603975
-0.120565 0.0144604 0.598542
-0.129756 0.0502831 0.646175
-0.115239 0.0161236 0.597978
-0.119083 0.0328376 0.608971
-0.123116 0.0258902 0.604215
-0.131454 0.0354697 0.616415
-0.112331 0.0280378 0.600925
-0.125977 0.0372108 0.616146
-0.111113 0.0224174 0.598418
-0.124079 0.0519175 0.647639
-0.114983 0.0395307 0.613502
-0.125935 0.0140132 0.600179
-0.135643 0.049404 0.64916
-0.121823 0.0201225 0.60102
-0.0993267 0.0193356 0.592743
-0.101659 0.0304893 0.600138
-0.103427 0.0128749 0.592045
-0.105799 0.0238892 0.598523
-0.0929365 0.0151615 0.590094
-0.106995 0.0290243 0.600533
-0.111229 0.0479238 0.641962
-0.098174 0.013901 0.591355
-0.0951913 0.0261665 0.595864
-0.0963491 0.0311475 0.597768
-0.102845 0.0358504 0.602764
-0.100488 0.024652 0.596219
-0.10551 0.0487996 0.639371
-0.0940573 0.0206829 0.59302
-0.108232 0.035083 0.605676
-0.0998282 0.0505695 0.637724
-0.104605 0.0185121 0.595262
-0.0974811 0.0373713 0.604404
-0.0784232 0.0235881 0.588462
-0.0804772 0.0349864 0.595714
-0.0857518 0.0334231 0.596784
-0.0921641 0.0379532 0.600953
-0.0910231 0.0328069 0.59841
-0.0888322 0.0214604 0.590977
-0.0814323 0.0122284 0.585891
-0.0815609 0.040244 0.598442
-0.0846534 0.0282965 0.594024
-0.0773264 0.0183379 0.587095
-0.0794574 0.0289521 0.591783
-0.0868067 0.0394683 0.601557
-0.0752659 0.0354054 0.593922
-0.0741999 0.0305808 0.591593
-0.0761849 0.042 0.599611
-0.0899411 0.0269401 0.593601
-0.0877247 0.0160182 0.588778
-0.0732057 0.0250649 0.588101
-0.0763841 0.0132857 0.58202
-0.0825397 0.0175675 0.587078
-0.0835858 0.0228353 0.590726
-0.0638208 0.0327935 0.589341
-0.07113 0.0144542 0.583663
-0.0578386 0.0279221 0.583811
-0.0595369 0.039288 0.592235
-0.0699329 0.0372342 0.594822
-0.0670913 0.0207723 0.583496
-0.0680915 0.0257905 0.586105
-0.0709818 0.0425579 0.59721
-0.0648326 0.0375569 0.59183
-0.0609056 0.0167012 0.581422
-0.0551299 0.0122582 0.574743
-0.0567924 0.0226541 0.582554
-0.0722128 0.0197257 0.584839
-0.0587632 0.0334499 0.58685
-0.0656499 0.0440449 0.597502
